# 3D point list with one line of data per point:
#   POINT3D_ID, X, Y, Z, R, G, B, ERROR, TRACK[] as (IMAGE_ID, POINT2D_IDX)
# Number of points: 403
453 13.388039792311449 -13.422760191147162 -7.165278184030166 160 77 6 0 89 58 84 40 87 59 86 53 88 60
454 -5.0832128304500639 -3.5421538161071835 0.72635194247454171 73 57 46 0 77 75 89 59 84 41 83 43 88 61 86 54 87 60
455 14.602818844288926 -13.758436717894098 -8.7769663258304416 164 81 8 0 89 60 84 42 87 61 85 60 88 62 90 33 91 34 86 55 92 25
456 8.5739419879805059 -25.468641294771441 -2.1656910259383477 52 44 40 0 54 15 53 11 52 12 55 30 7 19 83 44 80 59 78 62 82 44 87 62 85 61 88 63 84 43 59 3 86 56
457 -7.051760845809433 -2.9138285089294942 15.022892791178931 93 54 31 0 82 45 77 76 83 45 84 44 80 60
459 13.715069959646444 -1.8951655955893121 8.2370392619887696 110 99 87 0 72 43 71 47 70 25 76 60 73 45 74 51 75 61 78 63
460 5.679167409319974 -26.523002448836273 -0.76282095133234806 102 46 5 0 81 87 83 46 72 44 85 62 84 45
461 6.2680500712222154 -18.454273166859188 -3.2912924209914363 93 72 46 0 92 26 66 16 83 47
462 9.2884546676585309 -30.799380439592859 -0.66455717583993013 147 69 5 0 75 62 83 48
463 3.4963041229787133 -33.366019590031506 6.0858285663793997e-002 132 66 12 0 86 57 83 49 85 63 76 61
464 -4.2302141304537457 -1.0384287234194793 -3.8267504177995959 50 51 54 0 83 50 79 50 78 64
465 -7.1379115154604031 -10.578808159154535 4.6554628714718218 123 61 11 0 81 88 83 51 78 65 87 63 84 46
466 13.976439302423501 -13.208199830149363 -7.1744324093918364 165 79 4 0 83 52 79 51 84 47 86 58 85 64
467 1.2569413239784686 -32.062317136074491 -1.2017634639593271 142 71 11 0 83 53 79 52 86 59 78 66
468 12.242349124558247 -2.6486833627850959 5.5327947172467651 43 40 38 0 83 54 88 64
469 5.8339869682974639 -1.3431416482336491 -3.0332451847118551 44 45 49 0 88 65 84 48 83 55
470 5.3076065595644808 -1.5979747619187923 -1.8538732029303449 42 43 46 0 87 64 81 89 77 77 83 56 80 61 90 34 89 61 76 62 73 46 70 26 86 60 74 52
472 7.8865593418858433 -26.614035327399751 -2.771524381024526 90 47 11 0 80 62 83 57
476 8.7541706896042619 -15.229190028288391 -6.3580484037972855 129 57 2 0 81 90 83 58 80 63 88 66 82 46
478 6.729489992463626 -21.60839264480996 -2.2961945670890267 156 129 87 0 75 63 89 62
479 -2.3538928580582779 -26.823697460275433 -4.1148556811052286 103 50 10 0 76 63 89 63
480 10.658371147143328 -15.64066408387268 -7.203441721313756 133 60 3 0 89 64 76 64 75 64 91 35 90 35
481 6.6138095185494299 -20.260958361802238 -3.0104829293401805 120 101 69 0 77 78 76 65 89 65
482 -7.9231824799150425 -23.670981738942849 1.8167935349402839 127 56 3 0 89 66 84 49 82 47 83 59 86 61 87 65
483 5.1785167682338225 -26.498024555301836 -1.0628815890121233 116 55 9 0 21 8 27 9 23 13 29 8 60 6 28 8 81 91 89 67 84 50 79 53 80 64 72 45 71 48 70 27 68 21
484 -11.301287102409567 -32.530675030341868 5.5275745993780383 105 41 6 0 89 68 84 51 85 65 86 62 83 60
485 -3.912458688774636 -27.577066783379998 -2.4634757330866872 130 59 3 0 89 69 88 67 84 52
486 6.8500284662112119 -3.0901101244953613 2.70721197044133 36 30 29 0 89 70 83 61 84 53
494 3.3050626629776083 -3.641087177811122 5.0580110913512648 59 38 26 0 90 36 89 71 79 54
495 -13.313896093719562 -3.8257806998316215 12.284766904323664 89 81 75 0 90 37 82 48 80 65
496 8.6956994246236832 -14.830908879356773 2.206266665663525 110 45 2 0 84 54 90 38
497 9.0402683033373563 -0.84876221982041833 4.5726635284233508 38 39 41 0 90 39 92 27 85 66
498 16.037759383274242 -12.01803142752949 -4.2607355172216161 144 96 51 0 81 92 92 28 90 40 83 62 84 55 87 66 88 68 85 67 86 63 80 66 82 49 79 55
499 12.835195952029537 -2.9789703426556091 5.6393666417156361 63 57 50 0 92 29 90 41 89 72 79 56 78 67 71 49
500 -5.383542027429864 -3.5107536136029398 2.2930235016606764 76 52 37 0 81 93 92 30 90 42 89 73 83 63 88 69 85 68 82 50 73 47 72 46 74 53 69 30
507 4.7954152461845405 -4.4162171163287267 18.70470906906894 121 105 89 0 81 94 92 31 90 43 86 64 83 64 91 36 78 68 88 70 79 57 89 74 80 67
509 -2.6502571640097963 -21.162917753462803 -3.9630368269087879 161 118 71 0 82 51 92 32
510 20.252772900525006 5.2268943678823732e-007 7.0951137592887665 204 193 183 0 92 33 84 56 91 37 90 44
515 -7.8398032218909108 -12.355809413232206 2.4592253384787259 112 53 14 0 89 75 74 54 78 69 88 71 81 95 91 38 92 34
525 1.9419096821200579 -3.1690816675580944 8.5001075516409479 66 42 25 0 92 35 91 39 90 45 86 65 85 69
556 8.2816551227362254 -21.473524654265038 0.6438476669744484 159 130 88 0 92 36 88 72 89 76 87 67
557 -9.8941932699332025 -24.020897667565418 2.7161316848697017 122 53 2 0 88 73 92 37
558 14.445748391891165 -13.712817787945871 -4.2603547451347694 142 76 15 0 92 38 88 74 90 46 83 65 87 68 89 77
559 -4.0602377826969915 -32.179252321002238 -1.564970742469864 136 64 11 0 92 39 84 57 88 75
560 14.55861139932048 -1.4661484018674278 0.75186329311918954 46 47 49 0 92 40 80 68 85 70
561 -7.010217182102048 -25.546409071356589 -0.92429152023955063 105 38 2 0 92 41 86 66 85 71 88 76 91 40 90 47 89 78 67 20 66 17 65 8
562 4.6410674079324643 -17.488253744865055 -0.85677092413591727 77 54 32 0 92 42 86 67 91 41 85 72
563 9.920449711112088 -21.940661082006226 -0.69683751630499113 121 64 22 0 92 43 89 79 86 68
564 -9.1642349694757943 -0.65876684555376097 1.4698543735121778 50 50 51 0 92 44 86 69 89 80 87 69
565 15.075877314143428 -1.9130139438035831 0.69390642917706891 57 55 54 0 84 58 73 48 75 65
566 -6.9580721356811841 -9.593520365600984 2.8988337153024872 142 94 50 0 84 59 82 52 75 66
567 8.7084469880533533 -24.823700139175568 -2.4023330182904861 58 54 53 0 79 58 75 67 89 81 65 9 71 50
568 5.109502255223779 -24.316580070671382 -1.0069388324314057 92 40 3 0 77 79 71 51 75 68
569 2.5509842862982954 -1.9639701834088048 -4.0153104478300845 38 38 42 0 71 52 75 69
570 1.0035094317725832 -25.872016355763929 -3.2403192701060726 82 39 7 0 80 69 82 53 75 70
571 3.9488594093265101 -22.221573921361635 -4.3467312598452699 88 44 8 0 56 30 75 71 72 47 67 21 76 66
574 8.3878432626351582 -3.73909837383174 12.662407719588805 49 42 34 0 77 80 75 72 72 48 87 70 84 60 82 54 74 55
575 9.8928475043594801 -14.870139051575855 -8.7975379727571408 157 69 3 0 75 73 78 70 72 49
578 3.5881910894237414 -22.034971340790314 -2.8637286410188225 69 33 6 0 69 31 75 74
579 -1.9080282025793827 -3.3514954399383101 4.4386320668247308 65 44 29 0 70 28 75 75
580 7.1265970865202872 -25.702588990038191 -3.2501256268335519 64 35 14 0 70 29 75 76
581 -2.8267219489767368 -26.49782071153 -4.8803785430164188 111 52 6 0 87 71 92 45 91 42 72 50 73 49 71 53 76 67 77 81 70 30 75 77
582 9.4910284261754754 -23.207003811998518 1.4966033543814472 88 43 11 0 68 22 75 78
583 -5.251221552324072 -4.8729706726956854 1.6258033624330233 98 64 41 0 75 79 68 23 73 50 72 51
586 8.6948214001679194 -17.714206146392812 4.637482225701973 135 83 37 0 81 96 78 71 79 59 75 80
588 9.3391573605791347 -26.292812483209691 -1.8778401742079465 61 28 6 0 91 43 92 46 84 61
589 -13.704789805029117 -3.6542065547612586 13.101117372998681 86 79 72 0 91 44 84 62 92 47 83 66 89 82
591 2.5755935773111407 -4.4077202517299234 4.2309059996860228 64 50 36 0 91 45 87 72 89 83 90 48
592 9.2219633336659257 -26.550852899889783 1.8505344906785621 108 48 5 0 91 46 87 73 89 84 90 49
593 7.8446141527786564 -17.007836657980349 3.5705594698096697 109 65 31 0 91 47 87 74 86 70 92 48 89 85 90 50
594 -5.9146904810338992 -21.977005898167587 -1.2519101408680813 131 63 12 0 77 82 91 48 87 75 90 51 92 49
595 10.210951391498806 -2.7637722484497926 8.2745027370089961 36 34 32 0 81 97 91 49 87 76 82 55 86 71 92 50 83 67 90 52
596 2.7694182894756798 -17.757523276566957 -4.6631588824001433 86 65 43 0 91 50 87 77 86 72 84 63
597 6.937209278118182 -3.3075595359375676 -3.7536177484099942 32 33 37 0 87 78 91 51
598 -0.31925887468781861 -0.98917860083820019 2.0457509787521548 35 36 40 0 91 52 88 77 87 79 90 53 86 73 89 86
599 0.21553061075461372 -22.875344248071158 -7.0795105220801302 63 55 51 0 88 78 91 53
601 9.1241331836093735 -23.00735799259667 3.5295247459276133 93 41 8 0 88 79 91 54
602 12.712481454589708 -14.137157081702853 -9.0075470075105812 151 68 4 0 91 55 88 80 90 54 92 51
604 13.935160686614394 -2.3104011354318423 4.7605354042017813 69 63 57 0 91 56 88 81 87 80 92 52 90 55 86 74 89 87
606 -7.3578337822678463 -1.932180498292666 -5.0828982560696323 52 52 53 0 91 57 88 82 87 81 92 53 90 56 86 75 89 88
609 5.1120769251972389 -16.849860707070121 0.23527432653843516 100 65 31 0 91 58 88 83 84 64 90 57 92 54
613 -7.5955118490388376 -22.66030908073926 -0.40332914965588479 130 65 19 0 91 59 88 84 84 65 92 55 89 89 90 58
614 13.109084798686739 -12.782099073937403 -5.4975641331856453 150 71 6 0 75 81 77 83 84 66 74 56 88 85 85 73
615 6.9964714866196465 -23.096204405077305 -4.7088699389187516 83 45 16 0 72 52 84 67 83 68 73 51
616 5.9318340918993711 -2.2247779207867273 0.20102018925375237 32 33 37 0 81 98 84 68 72 53 92 56 88 86 85 74 86 76 79 60 82 56 89 90 78 72 83 69 87 82 75 82 70 31 68 24
617 1.9822359083485999 -34.245756052917322 1.4173135930804464 130 65 13 0 35 14 34 12 37 9 36 11 43 5 41 5 38 7 39 9 42 9 33 19 81 99 77 84 84 69 80 70 83 70 89 91 82 57 87 83 88 87 91 60 79 61 78 73 86 77 85 75 92 57
618 11.507083216165446 -13.737837810347393 -4.8201320644645991 153 71 4 0 81 100 84 70 80 71 83 71 87 84 85 76 88 88 82 58 86 78 78 74
619 -6.067613342951744 -31.011976679646779 -1.3329180892696226 119 50 6 0 92 58 86 79 81 101 84 71 80 72 83 72 82 59 85 77
620 0.74410239017176116 -4.3683599033410108 3.3293217634633661 70 57 42 0 77 85 84 72 80 73 89 92 91 61 86 80 82 60
621 15.805075289281914 -13.376970719781522 -6.1404632062170705 150 85 25 0 81 102 77 86 84 73 80 74 75 83 91 62 87 85 88 89 86 81 85 78 79 62 74 57 82 61 76 68 78 75 92 59 90 59 83 73 89 93
622 14.109941231400766 -14.11883442409628 -5.2094002963300134 146 84 25 0 84 74 80 75 82 62 85 79
623 11.131620066780892 -3.3945457483353989 9.4582744535336118 65 58 51 0 84 75 80 76 86 82 78 76
624 0.43975477251099931 -1.1729146389681184 -2.4389070601350662 46 47 50 0 84 76 83 74 78 77
625 -6.9284051506393256 -11.828922709600104 3.9443038495024694 119 58 9 0 81 103 77 87 84 77 76 69 83 75 75 84
626 9.9145076416141489 -3.3419745207200418 9.2813578533234296 41 36 31 0 84 78 76 70 83 76 88 90 90 60 89 94
627 2.8816061675472651 -21.177589778913063 -6.1208832238978124 106 86 58 0 81 104 87 86 80 77 82 63 86 83 92 60
628 11.048799997747162 -22.952606960501942 -3.9326881622625254 87 39 7 0 87 87 85 80 86 84 89 95 90 61 92 61 91 63
629 9.1289785012484099 -22.608614352138645 4.8684763869980694 113 52 10 0 86 85 81 105 87 88 85 81 84 79 83 77 89 96 92 62 80 78 91 64 82 64 78 78 72 54 71 54
630 5.5047616945689004 -26.75413381285416 -1.3307702189212105 113 50 3 0 87 89 85 82 90 62 82 65 83 78 66 18 86 86 84 80
632 8.4490283338255825 -26.160441449136393 -2.1977752453884989 63 42 27 0 8 12 87 90 85 83 78 79 89 97 88 91 83 79 75 85 71 55 72 55 82 66 74 58
635 5.791135167725705 -4.3876338973413587 10.971847438248352 90 56 33 0 81 106 87 91 85 84 80 79 79 63 83 80 84 81 78 80 86 87 82 67
636 -7.7201211942113988 -0.35788942605748947 -3.4198716422628608 58 57 57 0 87 92 85 85 92 63 91 65
637 9.5909424428854724 -13.155691367265005 8.66375605222761 135 81 36 0 82 68 87 93 85 86 88 92 91 66 92 64 90 63 89 98 84 82 86 88 83 81
638 0.68134506134331863 -1.5700498900838764 -4.5722904768149499 43 44 48 0 87 94 91 67 85 87
639 5.516883993178797 -7.901744172820516 14.361977419210559 123 79 45 0 87 95 85 88 88 93 91 68 92 65 90 64 86 89 89 99
643 14.404835603627079 -2.0217661608955821 0.24506233715404818 46 47 47 0 87 96 79 64 85 89
644 11.174432857060507 -0.97434088062977364 6.0837282088888234 45 43 42 0 77 88 87 97 85 90 80 80 82 69 84 83
645 7.3142303154801454 -1.2529364306514592 -0.59619955294610005 36 37 41 0 81 107 88 94 79 65 89 100 92 66
646 14.009162649687502 -13.249597860965117 -7.4035213398191217 159 76 5 0 88 95 82 70 87 98 89 101
647 0.1024232314244429 -2.2289273280480075 -2.2632419414192859 38 38 42 0 81 108 88 96 82 71 84 84 89 102 92 67 83 82 86 90 85 91 69 32 87 99
648 9.6330454405273525 -4.5199784865455062 -0.38816048857726171 46 38 33 0 81 109 88 97 85 92 91 69 86 91 92 68 84 85 90 65 82 72 89 103
649 1.0878371280171726 -1.9436472385399659 -3.8611712685527948 43 43 47 0 88 98 85 93 87 100 90 66 68 25 72 56
650 -2.9579001597292209 -22.315564127117302 -4.514158076678636 108 51 11 0 86 92 68 26 69 33 88 99 87 101 85 94
652 -2.7370684363320081 -31.675564427614184 -3.3920742306537339 150 77 18 0 85 95 88 100
656 -7.7271408876464847 -23.600533468109017 1.4807231520168644 125 54 3 0 77 89 88 101 85 96 72 57 90 67
657 -11.655963366362506 -3.3032608931662479 9.2588603138276397 58 52 46 0 81 110 88 102 85 97 82 73 87 102 91 70 84 86 86 93 92 69 90 68 83 83 89 104
658 9.6518608775918988 -22.546371607314626 -1.856409869052347 91 57 30 0 88 103 85 98 91 71 90 69 86 94 89 105
659 1.1077860260259134 -16.992531673727235 -2.7541182269257263 107 73 41 0 88 104 85 99 87 103 91 72 86 95 92 70 84 87 90 70 83 84 89 106
660 14.091932719749906 -2.5748676625938209 2.5912985107929387 55 51 47 0 88 105 85 100 87 104 92 71 84 88 90 71
661 -6.5135243130913416 -1.7295176623956383 -1.8930474294206587 48 48 51 0 88 106 85 101 90 72 89 107 80 81
663 12.552182635350011 -14.202638350252585 -5.5283352096807583 150 72 9 0 88 107 85 102 87 105 91 73 84 89 92 72 90 73 89 108 86 96 83 85
664 -0.29272626752364583 -24.89449586856788 -5.2437066622737722 60 56 55 0 77 90 88 108 85 103 78 81 87 106 89 109 90 74 91 74 68 27 72 58
665 -5.0337686530803509 -2.0452116482293117 -4.821457795239235 52 52 53 0 88 109 85 104 89 110 84 90
666 4.9296317395308957 -1.6450740494071265 -2.5660434369861278 39 41 44 0 88 110 85 105 90 75 87 107
667 -3.1613298674351147 -1.6656425596511193 -5.9930585284315869 51 52 55 0 88 111 85 106 87 108 91 75 86 97 92 73 89 111 90 76
669 -10.746268497445282 -2.7629869737761528 6.0644959873298117 55 51 48 0 88 112 85 107 87 109 91 76 84 91 86 98 92 74 83 86 90 77
670 10.619621766682187 -24.893366526182664 -1.4259536128524561 75 33 4 0 88 113 85 108 90 78 87 110
671 -16.429845722011319 -3.2808256706869172 16.032507004532505 132 122 114 0 88 114 85 109 87 111 92 75 90 79 83 87 89 112 86 99
672 -5.6873632593596977 -22.312332864251381 -1.6110546448327738 130 61 11 0 88 115 85 110 82 74 80 82 84 92 91 77 83 88 76 71 86 100 79 66
673 12.318636116296659 -2.7301231588650796 5.0802979282613672 41 39 37 0 88 116 85 111 82 75 84 93 87 112
674 14.22649058830129 -14.055336884394166 -8.5363931014292085 166 84 11 0 88 117 85 112 87 113 91 78 92 76 90 80 84 94 89 113 86 101 83 89
676 16.1742989750657 -13.204319411012737 -6.0980374442892211 146 88 35 0 88 118 85 113 82 76 80 83 87 114 86 102 83 90
677 7.0046916019477017 -3.1009485149807872 2.6799701988431819 34 29 29 0 88 119 85 114 87 115 90 81 84 95 86 103 89 114
678 4.9332148000275193 -3.5209301254835359 18.508695047359037 75 60 47 0 88 120 85 115 91 79 87 116
679 9.2501879662361723 -1.6495607988286429 -1.0099180171047948 36 36 41 0 86 104 72 59 76 72
680 14.818440379317913 -1.6710265573420364 1.607483226919953 54 52 51 0 73 52 86 105
681 5.7096874171431926 -18.234484020135806 -2.0756079280744562 93 71 45 0 81 111 86 106 84 96 74 59
682 -2.0232433267178864 -2.0918614002223364 -6.1294757470833892 48 49 51 0 86 107 79 67 88 121 84 97 91 80 90 82 92 77
683 6.730585891665096 -20.236920002542842 -3.4130416617034394 119 99 68 0 77 91 79 68 86 108
684 9.1901848734713347 -35.653884196192877 10.19406666539814 166 111 65 0 77 92 79 69 86 109
685 11.919642763696093 -24.875506563549287 9.1558676492878934 136 58 1 0 80 84 92 78 73 53
686 10.76685602279494 -1.4224201617525929 4.6523419604743781 43 42 40 0 80 85 79 70 84 98 82 77 78 82 76 73
687 0.86495250036075333 -1.4778970054963385 -3.416873424415984 45 45 49 0 81 112 80 86 79 71 86 110 87 117 89 115 67 22 85 116
689 -2.4329083359526007 -21.148925930073272 -5.6847343654706908 144 90 41 0 80 87 79 72 83 91 88 122
690 -4.6050024907519704 -31.28957875649872 -1.9218361456204742 132 62 13 0 90 83 76 74 81 113 77 93 80 88 79 73 84 99 78 83 83 92 89 116 87 118 92 79 82 78 72 60 88 123
692 8.7098588197071152 -9.6502260409541609 5.7142657081755672 106 62 32 0 87 119 81 114 86 111 85 117 90 84 79 74 80 89
694 0.50327948153048896 -25.587433888132434 -2.9345818393874983 60 28 7 0 74 60 85 118
695 9.0397479675818886 -1.4758616205807229 -0.30090101898740734 38 38 42 0 85 119 74 61 65 10 87 120
696 9.1817969522444027 -25.104381980606867 9.0911019997779139 108 42 5 0 81 115 85 120 78 84 86 112 88 124 87 121 84 100 89 117 83 93
697 14.732289195439778 -13.251288043678707 -6.1837951231282782 180 90 5 0 81 116 77 94 85 121 78 85 86 113 88 125 80 90 87 122 84 101 75 86 89 118 92 80
698 7.0914425504430367 -22.380799564885816 -2.1471340881621162 105 83 55 0 79 75 85 122
699 1.6395772530070698 -2.3562795055357708 -1.8507410065297361 34 34 38 0 81 117 85 123 79 76 89 119 92 81 75 87 73 54 80 91 82 79 74 62
700 7.2922037839257409e-002 -2.082847283197256 -3.113237766222225 38 38 42 0 85 124 79 77 80 92 90 85 74 63 75 88 73 55 67 23
701 10.449655968535835 -15.947751834131301 -8.2469601078291053 131 58 2 0 85 125 79 78 83 94 92 82 88 126 89 120 91 81
702 17.728124723796999 -0.31833192959238293 5.745551541961194 178 164 147 0 81 118 77 95 85 126 79 79 78 86 86 114 88 127 80 93 82 80 73 56 72 61 76 75 74 64 71 56 69 34 70 32 87 123 84 102 91 82 92 83 90 86 89 121 83 95 68 28 66 19 64 10
703 -3.1948018934379743 -22.324804639875751 -2.7356337549317717 104 61 26 0 72 62 82 81
704 10.587979034571516 -15.023855935494744 -8.4590772747395011 179 81 3 0 82 82 73 57 72 63 87 124 84 103 83 96 75 89
705 0.36800233903873286 -1.3999801529683058 -3.9088505551214201 42 42 46 0 3 19 82 83 74 65 89 122 75 90
706 10.014054965983735 -12.037153400397157 -3.3834020192702999e-002 109 46 9 0 81 119 82 84 76 76 83 97 80 94 84 104 73 58 72 64
707 6.4714529484335186 -5.5958687845498662 8.8353772355446996 104 69 46 0 82 85 78 87 80 95 72 65
708 2.5300633536249548 -22.461919370146369 -4.1263863737045456 111 64 26 0 81 120 82 86 78 88 88 128 87 125 89 123 66 20 65 11 64 11
709 -2.3038061194328101 -21.846409038295452 -4.5596433576259825 128 83 42 0 81 121 77 96 82 87 78 89 85 127 86 115 88 129 83 98 84 105
710 11.844890232954976 -24.224221576420238 8.6816009637048861 133 58 2 0 82 88 78 90 74 66 85 128 86 116 88 130 91 83 92 84 89 124 90 87
711 5.2008738777751073 -1.8803495324754769 -3.5426474756900914 41 41 45 0 82 89 78 91 83 99 84 106
712 12.037938486839968 -14.878603829914901 -7.2193396734623612 136 61 3 0 82 90 79 80 85 129 74 67 73 59 80 96 86 117 88 131 84 107 83 100 89 125 75 91
713 1.6267911998835409 -26.507500306739445 -3.0633844914535948 116 51 4 0 81 122 82 91 79 81 86 118 84 108 85 130 83 101 87 126
714 3.0617037634311481 -33.766439545366275 3.1776126054390907 140 79 28 0 82 92 79 82 80 97 76 77
715 -4.4586835445533932 -32.823928633969935 -0.63461874981853894 144 82 31 0 81 123 82 93 79 83 80 98 83 102 88 132 85 131 87 127 84 109 89 126 86 119 90 88
717 13.908683091345699 -13.730153989934529 -9.2259030836860969 170 82 6 0 81 124 82 94 79 84 83 103 80 99
718 2.0403327809781744 -20.497990370858016 -4.0116234494502665 73 57 37 0 77 97 82 95 79 85 86 120 85 132
719 10.0319396688006 -2.4449306434494638 0.97369154223963605 34 35 38 0 81 125 82 96 79 86 78 92 85 133 80 100 86 121 88 133 87 128 84 110 91 84 92 85 90 89 83 104 89 127
720 9.3533926118922039 -30.088078651815021 3.4576755252179563 135 60 3 0 77 98 82 97 79 87 80 101 86 122 78 93 88 134 87 129 84 111 92 86 89 128 90 90
721 10.715218549043529 -0.22925539326611913 0.97972557826116713 48 49 52 0 81 126 82 98 79 88 78 94 80 102 83 105 75 92
722 -2.4612706356924416 -26.612585247607928 -3.4830719529690142 89 47 16 0 82 99 79 89 85 134 86 123 88 135 87 130 84 112 75 93 83 106 89 129 68 29 67 24 66 21 65 12 64 12 63 18 62 9 61 7 60 7
723 7.3676854399399447 -32.106541813783551 1.7042344031741545 159 90 28 0 81 127 82 100 79 90 83 107 80 103
724 11.194960528243159 -14.738184290212525 -7.3489571177726702 169 79 4 0 77 99 79 91 73 60 85 135 76 78 75 94 87 131
725 2.309189988122041 -1.6232187616554214 -5.0486010921012117 46 47 50 0 72 66 79 92
726 9.0339571601571347 -22.896811082890039 7.7622516564483943 116 51 8 0 81 128 79 93 74 68 76 79 82 101
727 12.40531525106771 -3.1170918345933178 6.0446327852246906 66 59 52 0 77 100 79 94 74 69 75 95 71 57 76 80
728 1.260622283027101 -31.257481467343716 -2.761749656313341 146 74 14 0 77 101 79 95 74 70 75 96 76 81 89 130
729 -0.26198244965324002 -32.117623370869097 -1.3637478353407591 152 85 28 0 79 96 74 71 73 61 80 104 68 30 84 113
730 8.9432289866114605 -23.965005466178958 -1.68969012709056 74 72 73 0 6 22 77 102 78 95 73 62 82 102 88 136 80 105 84 114 91 85 89 131 85 136 87 132 79 97
731 6.1606581801591362 -21.665787482061862 -2.4061348654617838 145 115 76 0 77 103 78 96 73 63 92 87 82 103
732 1.6852191202185296 -26.484502499319088 -3.3317785006315939 113 52 6 0 72 67 78 97
733 -3.4424658375851696 -26.912532453494375 -4.1505777896179064 123 56 5 0 68 31 66 22 78 98 72 68 90 91 89 132 73 64 80 106 86 124 79 98 92 88 82 104
734 16.620139635865467 -1.3394423540296809 2.0255197152476043 115 105 94 0 77 104 78 99 72 69 73 65 63 19 79 99
735 2.0947436970099393 -21.576587649264006 -3.4638077212226883 98 73 47 0 78 100 73 66 72 70
736 8.4758553085121822 -31.743527641805773 1.524483811023047 151 76 14 0 77 105 78 101 72 71 90 92 82 105
737 12.697434630067308 -1.3130979273397618 1.8163734095840995 50 48 47 0 77 106 78 102 76 82 72 72
738 9.4818265729434437 -18.422537610624214 1.5484084956818887 145 92 44 0 77 107 78 103 71 58 88 137 79 100
739 7.4732994320721886 -22.615098346399812 -2.2574620886051293 82 67 50 0 55 31 77 108 78 104 69 35 85 137 80 107 89 133 90 93 92 89 87 133 88 138 91 86 75 97 76 83 68 32
740 -3.7375073444711586 -32.567577701272 2.983426992930862e-002 154 88 30 0 77 109 78 105 69 36 80 108 79 101
741 14.222141336082515 -0.81706114868531277 0.16928064562257225 49 50 53 0 81 129 77 110 78 106 74 72 72 73 73 67 79 102 80 109 88 139 84 115 75 98 90 94 83 108 86 125 67 25 82 106
742 15.417508181551556 -1.4469028524171565 1.8896503254256467 63 59 57 0 59 4 81 130 78 107 74 73 73 68 79 103 82 107 85 138 87 134 84 116 80 110 83 109 63 20 75 99
743 10.767404485866232 -21.536392124834688 2.8347686346225816 134 74 25 0 81 131 78 108 73 69 74 74
744 9.4503692640958441 -22.642095406435036 -1.1395520915892268 81 49 23 0 78 109 74 75 82 108 71 59 86 126
745 6.2872999964440597 -26.232826972683501 -1.689121579672205 86 39 6 0 81 132 78 110 74 76 79 104 82 109 85 139 80 111 86 127 88 140 87 135 84 117 75 100 90 95 83 110 89 134
746 13.527645580893571 -13.907386112677669 -1.252845270400988 148 92 35 0 78 111 79 105 74 77
747 11.892567896743607 -23.615436279261186 4.0132947597307247 116 48 3 0 78 112 73 70 74 78
749 4.7118412496036939 -3.0524393294122931 24.8187982685413 89 79 65 0 78 113 74 79 80 112 79 106
750 14.8995410021216 -11.429644171794108 -3.6436518525283978 129 68 18 0 81 133 77 111 78 114 76 84 74 80 73 71 79 107 82 110 80 113 86 128 75 101 83 111 87 136 91 87 89 135 90 96 88 141 92 90 84 118 85 140
751 9.7190777213872153 -22.37425692216134 0.42990808186112373 112 55 13 0 78 115 76 85 74 81 79 108 80 114 63 21 75 102
754 11.763620630925075 -14.737476833109676 -7.2959624749854672 146 67 4 0 77 112 78 116 76 86 89 136 83 112 80 115 79 109 85 141 75 103 91 88
755 10.388884189672382 -14.953577673476294 -7.8858728288277158 175 80 3 0 81 134 77 113 78 117 76 87 79 110 85 142 80 116 86 129 88 142 91 89 92 91 89 137 90 97
758 10.955446541499244 -14.535625907793277 -7.2808593391607275 173 81 4 0 78 118 87 137 76 88
761 9.2512970026416266 -14.499095902852465 10.430073672337938 136 84 40 0 77 114 78 119 73 72 76 89
762 6.5354112853284416 -2.1301909796085226 -0.48401592204966937 32 32 36 0 77 115 78 120 76 90 79 111 89 138
764 1.6491946327904867 -2.1976570127600867 -3.3420036289613906 41 42 45 0 81 135 77 116 78 121 76 91 72 74 79 112 82 111 84 119 83 113 67 26 88 143
766 2.470997353610676 -21.843792831322979 -4.4566515641954183 108 76 45 0 77 117 78 122 76 92 74 82 86 130 91 90 75 104 83 114 89 139
767 9.9087988563005638 -14.862243746291758 -8.4470304941400833 157 70 4 0 73 73 69 37 74 83 78 123 79 113 86 131 90 98 88 144
768 1.7204880784459695 -2.0690555931187671 4.0088442705109015 44 41 39 0 73 74 69 38 75 105 74 84 71 60
769 9.7753808084430283 -15.179812502397544 -9.1334583285514572 140 62 3 0 73 75 69 39 88 145 92 92 90 99 87 138
770 14.000669869682067 -2.4472736407985471 32.499860021456101 199 184 161 0 69 40 73 76
771 4.5795518372206176 -1.2490056245118117 -1.7593908144544426 40 41 44 0 68 33 73 77
772 9.5953181442115341 -27.337951126316405 0.67276640185994618 127 57 3 0 77 118 73 78 71 61 86 132 89 140 84 120
773 14.300340013183529 -12.027616421086876 -3.7325853805543043 171 82 4 0 65 13 66 23 64 13 62 10 61 8 60 8 57 7 58 6 59 5 81 136 77 119 73 79 71 62 72 75 74 85 78 124 79 114 80 117 76 93 75 106
774 14.612675773538175 -1.3775321453951448 0.88469438460418715 44 45 47 0 73 80 70 33 71 63
775 10.976143974739891 -14.448743503653175 -6.7382921724195475 176 83 4 0 73 81 70 34 71 64
776 14.724956437050896 -14.257119716605972 -10.318516495398958 174 93 19 0 81 137 73 82 71 65 70 35 72 76 74 86 80 118 75 107 82 112 78 125 76 94
777 13.148867960718059 -11.780810985964846 -3.9525133528030651 111 50 4 0 81 138 77 120 73 83 71 66 78 126 79 115 82 113 76 95 85 143 80 119 88 146 75 108 86 133 83 115
778 12.729098981852188 -13.940004533210351 -8.4372486237252033 161 76 6 0 72 77 70 36 73 84 74 87 78 127 68 34 75 109 67 27 80 120
779 -4.0634336032428795 -22.034155366210658 -2.4761813588319246 119 58 15 0 75 110 72 78 70 37 76 96 71 67 74 88
780 14.163594498240826 -2.5866512475721382 1.3750257389115794 56 52 49 0 72 79 70 38 79 116 74 89 68 35 69 41 82 114 85 144 80 121 88 147 87 139 84 121 89 141 86 134 83 116
781 3.1537772621913653 -16.376949130981981 -10.18506162122582 83 38 5 0 72 80 70 39 71 68
782 0.79588742528493706 -31.625183205156123 -2.390302657665802 148 76 17 0 77 121 72 81 71 69 74 90 87 140 89 142 88 148 91 91 73 85 92 93
786 -0.26006440184919338 -26.278940046807897 -5.7435243742985627 71 45 25 0 77 122 72 82 71 70 73 86 85 145 86 135 90 100 91 92 92 94 75 111 76 97 87 141 83 117 84 122 80 122
788 1.7224741010657516 -2.3061268530521044 -2.2493635302275354 34 34 38 0 72 83 71 71 69 42 75 112 70 40
789 11.840133032933258 -2.2849550205948681 12.315815585218198 110 100 86 0 77 123 72 84 71 72 73 87 70 41 75 113 76 98 69 43
790 0.64511301378373065 -2.3454819069990953 -4.5691002554960587 38 38 42 0 77 124 72 85 71 73 73 88 75 114 74 91 78 128 69 44 76 99
791 9.390155025213156 -14.308391752146912 6.2210033027241032 138 63 7 0 72 86 75 115 71 74
792 -2.9879635766382786 -31.183551204102834 -4.3647433702802694 134 62 10 0 81 139 72 87 71 75 82 115 90 101 92 95 86 136 88 149 91 93 70 42 89 143
793 14.221776864011662 -2.326680986267414 0.69542928008623461 50 49 47 0 81 140 76 100 68 36 75 116 86 137 84 123 82 116 85 146
794 20.454964713107678 0.43211681485722286 2.7538037298507145 204 192 179 0 76 101 68 37 75 117 73 89
795 8.8347499642993377 -31.434982242085521 1.5319720060230488 143 67 8 0 76 102 70 43 89 144 90 102
796 -5.750139226187664 -2.535705540212212 -0.80475904341191362 50 48 46 0 77 125 76 103 70 44 72 88 73 90 78 129 83 118 79 117
797 11.224169276986505 -13.929988882554989 -8.9071645016539645 153 70 4 0 70 45 76 104
798 9.8216680847670723 -30.433627148060314 3.0376658332202311 128 56 4 0 81 141 76 105 71 76 79 118 73 91
799 -6.3678168171772374 -3.9945580348957397 -0.37440237753450423 72 63 53 0 71 77 76 106
800 4.3852268382234252 -1.8078553010732774 6.7108584089804122 37 33 34 0 77 126 76 107 70 46 71 78
801 -2.7728126202060892 -22.343332975135844 -4.8592098909776755 105 48 8 0 74 92 68 38 73 92 79 119 75 118 66 24 62 11 61 9
802 9.7294825995531724 -27.11762178960841 0.46218333891902802 123 55 3 0 74 93 68 39 72 89 73 93 78 130 85 147 88 150 91 94 75 119 76 108 92 96
803 -2.2880688990982438 -3.9345334121514446 5.6987966873986906 78 50 30 0 74 94 73 94 70 47
804 10.546182498516735 -15.513202889316664 -9.587972712790565 156 71 5 0 74 95 75 120 70 48
805 1.0586896935873478 -26.49689593967101 -3.1786679538827332 102 48 7 0 74 96 69 45 76 109 72 90 89 145
806 1.231790519653355 -1.2383374397979621 -3.7180438660649275 47 47 51 0 77 127 74 97 69 46 68 40 73 95 79 120 75 121 90 103 92 97 72 91 89 146
807 7.0098138580291991 -5.0077694959984518 6.9584337308966955 92 58 34 0 81 142 78 131 76 110 77 128 74 98 72 92 69 47
808 1.1329640162728871 -24.96390919658095 -5.9230040285113583 39 26 19 0 71 79 74 99
809 9.3941592844857826 -22.635455806404085 0.4529200760268422 93 47 13 0 77 129 74 100 71 80 76 111 72 93 78 132 79 121 80 123 88 151 86 138 75 122
810 7.7688463607565534 -9.195853947784089 7.0095211846741368 123 77 42 0 77 130 74 101 71 81 72 94 73 96 76 112 78 133 84 124 87 142 75 123
811 10.544707109206046 -1.3178090649583485 -0.80832745908203441 43 44 47 0 81 143 77 131 74 102 71 82 76 113 78 134 72 95 73 97 79 122 82 117 85 148 80 124 86 139 88 152 87 143 84 125 91 95 89 147 92 98
812 -6.7617042159750973 -22.043966045101065 6.9345403384331455e-002 127 58 9 0 74 103 71 83 70 49 76 114 73 98 78 135 79 123 80 125 82 118
813 5.7298372296309648 -23.503095633301829 -1.0734054133311568 74 36 10 0 81 144 74 104 71 84 70 50 76 115
814 5.65402460131516 -2.3955436806137915 -0.61268526396676903 34 35 38 0 81 145 77 132 74 105 71 85 76 116 72 96 70 51 73 99 79 124 80 126 84 126 91 96 75 124 90 104 92 99
815 14.336345565864136 -2.2045746231996075 2.0017690554034324 60 56 53 0 74 106 79 125 71 86
816 7.691231981358337 -9.6769130711317306 6.786617279040307 111 56 23 0 74 107 71 87 72 97 73 100 75 125
817 1.1211733118770157 -26.234707822502223 -4.1213679750944365 87 40 6 0 81 146 77 133 74 108 71 88 70 52 76 117 72 98 73 101 78 136 79 126 82 119 85 149 80 127 86 140 88 153 87 144 84 127 91 97 75 126 92 100 90 105 83 119 89 148
819 2.4406432886045115 -17.889975175330058 -4.6706142793748189 100 78 52 0 81 147 77 134 74 109 71 89 76 118 72 99 73 102 78 137 79 127 82 120 85 150 80 128 86 141 88 154 87 145 84 128 91 98 92 101 90 106 83 120 89 149
820 12.616902228027044 -31.509047709585023 8.6798389022758276 102 38 1 0 67 28 71 90
821 12.501558633909108 -2.3245610412890798 3.5772094610927208 41 39 39 0 71 91 69 48 78 138 75 127 86 142
822 5.3338119302392997 -1.5137039613451053 -2.6781934068566717 44 44 47 0 71 92 69 49 74 110 72 100 73 103 78 139 75 128 82 121
823 13.468444377827534 -13.487825898731085 -7.4094714803797164 173 82 7 0 77 135 71 93 74 111 69 50
824 2.3001955619663144 -1.3393445254275318 -2.5534801689347373 39 40 43 0 67 29 70 53
825 1.9052996021804516 -34.196022196989304 1.7378803783349266 133 68 16 0 70 54 68 41 73 104 75 129 74 112
826 14.113453231028823 -12.906483413344285 -5.4833464498836006 185 89 6 0 78 140 77 136 70 55 68 42 71 94 74 113 76 119 73 105 72 101
827 1.9702131367441071 -17.656117831032404 -4.0758021587896449 107 81 52 0 77 137 70 56 68 43 71 95 72 102 73 106 79 128 82 122 75 130 90 107 89 150 88 155 92 102 85 151
828 -0.99773083667914619 -1.3874007868713014 -5.2961233718633718 43 44 48 0 81 148 77 138 70 57 69 51 76 120 78 141 79 129 82 123 85 152 80 129 86 143 88 156 87 146 84 129 75 131 92 103 90 108 89 151 67 30 83 121
830 11.971274449831865 -10.917939600398613 -2.2276026495660335 83 38 10 0 77 139 70 58 69 52 71 96 79 130 78 142
831 8.4624673358243907 -23.237762826408741 -2.4056143948352946 101 99 99 0 70 59 69 53 87 147 71 97
832 5.4360407960740273 -26.778868466978036 -1.0006289144366587 117 55 9 0 26 12 21 9 77 140 70 60 69 54 71 98 75 132 76 121 67 31
834 4.2218140760763365 -4.4598550970910198 20.688097851673135 131 107 83 0 77 141 70 61 69 55 71 99 74 114 76 122 72 103 75 133 73 107
836 12.899920891318391 -2.497834373330901 10.405879167828951 130 117 102 0 70 62 69 56 71 100 84 130 72 104
837 -7.7339549709554722 -8.7381672154214076 4.4220234168986874 154 116 72 0 70 63 69 57 73 108 75 134 83 122 67 32 86 144 84 131
838 8.4095059790557389 -14.875961167593799 11.760445935100233 119 63 24 0 81 149 70 64 69 58 72 105 75 135 74 115 83 123 89 152 92 104 91 99 84 132 87 148 80 130 88 157 86 145 85 153 82 124 78 143
840 10.859360781936346 -13.512946702971856 -5.3485316691741467 146 66 4 0 70 65 69 59 71 101 72 106 74 116 73 109
841 -6.6517624852828234 -17.751758465586182 -0.30096828272306625 135 77 30 0 70 66 69 60 68 44 74 117 75 136 73 110
842 12.845495737978093 -14.299944922439861 -9.1328915299470879 160 77 9 0 70 67 69 61 74 118 71 102 68 45 73 111
843 10.126646880780378 -2.0414371027101721 -1.7760196849850072 41 41 44 0 70 68 69 62 71 103 74 119 73 112 75 137 78 144
844 13.278008376981235 -2.3486999134035926 0.82086053113620683 42 41 41 0 81 150 77 142 70 69 69 63 71 104 74 120 76 123 72 107 73 113 78 145 79 131 80 131 82 125
845 12.038156148524537 -11.829711282281831 -2.6005514230944304 108 49 7 0 70 70 69 64 71 105 74 121 76 124 72 108 73 114 75 138 84 133 80 132
846 1.0678274493312758 -31.704776691267746 -1.6102676379346759 146 73 16 0 87 149 76 125 90 109 89 153 77 143 69 65 70 71
848 -1.9279731827077444 -2.4409736447642816 -7.6127288073056221 52 51 54 0 70 72 69 66 78 146 72 109
849 14.695814969312737 -14.459199348989891 -11.377110471571369 177 104 35 0 70 73 69 67 72 110 71 106
850 6.3044292749442867 -19.097861921797154 -1.9474084370056071 117 94 62 0 70 74 68 46 69 68
851 10.057792064078797 -1.8671530057222516 0.56857264940215824 47 46 49 0 69 69 64 14 67 33
852 10.340924967977021 -29.031408875663214 10.750672168459277 120 51 2 0 91 100 78 147 73 115 69 70 67 34 82 126 83 124
853 11.110877310802785 -2.7568080414725777 9.0948049292041322 54 49 43 0 77 144 69 71 67 35 71 107 73 116 74 122 76 126 78 148 79 132 72 111 80 133 84 134 91 101 85 154
854 12.75471522203437 -10.734234674837424 -2.8019122614757865 90 46 12 0 69 72 67 36 71 108 70 75
855 5.9727069556905592 -1.5289781597628171 1.9103836582608211 34 36 39 0 67 37 69 73
856 -9.0239326362099685 -11.8649562094297 3.7578163273170344 115 60 21 0 42 10 48 5 51 10 44 6 45 8 56 31 55 32 54 16 52 13 53 12 68 47 69 74
857 -2.5428196100510982 -26.782390012829538 -4.679608559779675 110 52 10 0 69 75 68 48 70 76 71 109 76 127 63 22 78 149
858 1.2359525370852376 -26.704688079224852 -2.9199118034154563 113 51 7 0 77 145 69 76 68 49 74 123 72 112 78 150 87 150 91 102 75 139 90 110 92 105
859 -12.902801493808035 -3.4448211927222609 12.088673182446017 67 59 53 0 81 151 77 146 69 77 68 50 71 110 74 124 76 128 72 113 73 117 79 133 82 127 85 155 80 134 86 146 88 158 87 151 84 135 91 103 75 140 92 106 90 111 83 125 89 154
860 11.092030624691853 -2.7343030430710291 1.4319615492673332 42 40 39 0 69 78 68 51 70 77 71 111 73 118 74 125
861 2.7301397601648696 -1.5009377054055997 -5.640107486052754 47 47 51 0 86 147 81 152 77 147 69 79 68 52 71 112 82 128 74 126
862 1.3707557818030391 -2.4182610338644821 1.2699488007066517 43 40 40 0 69 80 68 53 65 14 63 23
863 -6.0674440784597055 -7.3714578675298768 2.9059836796802516 143 104 67 0 77 148 69 81 68 54 76 129 75 141 72 114
864 13.695943560035877 -10.78777843023993 -2.5331195555597095 102 53 12 0 77 149 69 82 68 55 70 78 74 127 71 113 75 142
866 14.768363476412697 -1.574984099892232 6.1964182118107791 103 94 84 0 69 83 70 79 68 56
867 5.9748420198476007 -17.639016110468756 -2.6698737033871622 100 71 41 0 77 150 69 84 68 57 70 80 74 128 76 130 73 119 80 135 75 143 88 159 89 155 91 104
871 8.9520277785768894 -15.400160766758603 11.39437461242375 135 87 48 0 81 153 77 151 69 85 68 58 71 114 76 131 73 120 78 151 79 134 82 129 85 156 80 136 88 160 87 152 84 136 91 105 75 144 92 107 90 112 83 126 89 156
873 -2.2182700472868073 -1.9075924583416977 -5.8593223513761208 48 47 51 0 77 152 69 86 68 59 70 81 71 115 72 115 75 145 79 135 73 121 74 129 78 152 76 132 67 38 66 25
874 -3.9373994497881997 -2.4116869759182653 -5.9136534081123679 49 49 51 0 81 154 77 153 69 87 68 60 70 82 73 122 74 130 78 153 79 136 88 161 83 127 80 137 67 39 92 108
875 -2.4958905506965579 -22.224263476202889 -4.231045092206438 103 58 24 0 81 155 77 154 69 88 68 61 70 83 71 116 74 131 73 123 75 146 78 154
876 -6.733492221759632 -6.0629645274919994 8.0979080814990549 102 54 25 0 69 89 73 124 68 62
877 11.974001933646553 -14.737695882926682 -8.1536474746833694 162 78 7 0 69 90 71 117 68 63
878 10.292578860666021 -3.3124340311626392 4.9654882496803365 44 40 35 0 84 137 83 128 89 157 77 155 69 91 68 64 70 84 72 116 73 125 75 147
879 8.4154315490354321 -9.988215881337549 5.9433970464525041 102 41 14 0 69 92 70 85 68 65
880 11.798017690033721 -14.13084484018505 -8.8225731830708511 160 75 4 0 69 93 68 66 70 86 73 126 71 118
882 12.056502712980443 -10.151914036195461 -1.187364524659688 91 53 21 0 63 24 69 94 68 67 70 87 67 40
883 8.6819225751086471 -3.7106789395531861 10.281569621146271 59 50 40 0 69 95 71 119 68 68
884 15.279144827844146 -2.0396050397237033 3.9306168032027347 113 104 93 0 69 96 68 69 67 41 70 88
885 11.155521826768092 -13.78201229699763 -6.6240484829145636 151 69 3 0 81 156 77 156 69 97 68 70 70 89 74 132 76 133 72 117 73 127 78 155 79 137 82 130 85 157 80 138 86 148 88 162 87 153 84 138 91 106 75 148 92 109 90 113 83 129 89 158
887 -5.4651544862470454 -2.7889348634830049 -2.9452559052284442 48 47 45 0 69 98 70 90 68 71
889 -6.9597652438943083 -11.534156003541456 4.1295841488494283 122 67 20 0 90 114 69 99 68 72 70 91 71 120 74 133 73 128 72 118
891 14.443263734315366 -14.59393229730051 -11.437448349996842 181 110 40 0 69 100 70 92 68 73
892 -1.0047024912115505 -7.2282869513779184 3.388360666062332 110 73 43 0 77 157 68 74 66 26 69 101 70 93 71 121 74 134 76 134 72 119 73 129 75 149 62 12 60 9 67 42 61 10
893 9.0588487932734338 -3.5220727606200684 10.04505863503185 47 40 33 0 81 157 77 158 68 75 67 43 69 102 70 94 71 122 74 135 76 135 72 120 73 130 78 156 79 138 82 131 85 158 80 139 86 149 88 163 87 154 84 139 91 107 75 150 92 110 90 115 83 130 89 159
894 0.71249735283204152 -5.2223967926819279 10.812023082716074 105 80 60 0 70 95 72 121 71 123 68 76 69 103 67 44
895 6.8128975898630202 -3.3937364977394369 14.587968624761997 69 55 40 0 68 77 67 45 69 104 71 124 70 96
896 12.543935994075619 -2.7741735014877271 5.2461704944995464 54 50 45 0 77 159 68 78 67 46 69 105 76 136 74 136 78 157 75 151 73 131 71 125 70 97 90 116 72 122
898 13.718722407946395 -2.2051561652226441 5.4660855413026335 83 75 69 0 68 79 67 47 70 98 69 106
900 6.2272278446156877 -3.7921080305339721 22.195689224791369 118 106 92 0 83 131 84 140 90 117 68 80 67 48 69 107 86 150 73 132
902 19.293656200316629 0.27284644840204864 7.9206119651767439 199 186 172 0 81 158 77 160 68 81 67 49 69 108 70 99 71 126 74 137 76 137 72 123 73 133 79 139 85 159 78 158 80 140 88 164 84 141 83 132 75 152
903 -5.0228858402976986 -22.427445010786236 -0.86036852417254461 119 49 3 0 17 8 15 5 16 5 2 25 18 6 8 13 6 23 4 22 7 20 3 20 14 5 67 50 68 82
904 14.73857542820563 -13.558460926929355 -7.5737407496949247 176 89 8 0 81 159 77 161 68 83 67 51 70 100 71 127 74 138 76 138 78 159 79 140 82 132 85 160 80 141 88 165 87 155 84 142 91 108 75 153 86 151 92 111 90 118 83 133 89 160
905 -5.1053766245707815 -31.142024530370531 -0.90424771179879349 124 58 9 0 68 84 67 52 71 128 69 109
906 -0.10735512885100496 -16.291111245574736 1.0884772444689481 99 64 32 0 44 7 89 161 90 119 77 162 68 85 67 53 70 101 71 129 79 141 78 160
907 5.1099999935951939 -17.878466722533343 -3.2487874022571117 53 33 19 0 68 86 67 54 83 134 75 154
909 13.830603433129481 -2.3025128884422141 8.3986619172385275 134 121 107 0 68 87 69 110 67 55
910 13.725752400480335 -12.434819576945701 -5.1474979248547736 158 74 5 0 77 163 68 88 67 56 69 111 70 102 71 130 74 139 72 124 73 134 78 161 79 142 85 161 80 142 83 135 75 155
912 7.2629729796264284 -7.5351005406802081 7.4775561114964137 138 101 62 0 68 89 67 57 69 112 76 139 70 103
913 -4.4893657953854138 -11.076929121312403 6.9013115571279052e-002 130 67 15 0 77 164 68 90 67 58 69 113 86 152 72 125
914 16.09616233865172 -12.54488326051421 -6.3646196641259163 169 105 42 0 68 91 67 59 69 114 70 104 73 135 72 126
915 -3.1719229325412313 -26.614439780105474 -4.0488660557125442 113 53 8 0 57 8 68 92 67 60 63 25 69 115
916 12.354255853387729 -1.5216511686008691 2.300237903578636 48 46 46 0 68 93 67 61 69 116 70 105 71 131
917 -3.8714440406872814 -31.694318138178765 -1.9017965252121338 140 72 17 0 68 94 69 117 67 62
918 8.1613561993877042 -3.6252545690178426 13.282647786195213 52 44 36 0 90 120 89 162 91 109 85 162 88 166 81 160 68 95 67 63 69 118 70 106 78 162 73 136 76 140 71 132
919 9.5995013113674332 -11.889985288324047 1.3503829086537995 98 37 8 0 67 64 65 15 68 96 69 119 70 107 74 140 79 143 75 156
920 6.1000116238701816 -3.4956713774360493 34.488847746562008 171 145 105 0 65 16 67 65
921 -7.0487882930065604 -22.29706768909687 -2.9388252416099173e-002 119 51 9 0 67 66 63 26 69 120 68 97
922 11.084592785644125 -14.481988161054934 -7.2101696101702251 180 85 3 0 67 67 66 27 68 98 69 121 70 108 74 141 80 143 75 157
924 9.6319217145078291 -2.5904119524571136 5.2456112898354617 42 39 37 0 72 127 74 142 77 165 67 68 66 28 68 99 69 122 78 163 80 144 82 133 75 158
925 -1.00779024678577 -33.97623861429895 3.2275198159784333 150 91 38 0 67 69 64 15 66 29
926 8.290191244023049 -9.3459853539043536 5.2036060899376047 124 74 39 0 67 70 66 30 68 100 70 109 69 123
927 10.584890492026121 -2.7423255818306034 4.4973323612032292 38 37 35 0 77 166 67 71 66 31 68 101 69 124 70 110 71 133 74 143 72 128 73 137 79 144 78 164
928 11.062532717086901 -15.020737933367485 -5.8353527728921026 165 81 8 0 67 72 69 125 66 32
929 6.0288525611062944 -3.5875116657866157 19.25982435870899 80 67 53 0 67 73 66 33 69 126 70 111 78 165 72 129
930 -13.321903766323269 -3.1157038822990999 11.023667165362081 64 58 53 0 67 74 64 16 66 34
931 -0.38371156433173159 -5.3426133781995819 12.765783001548931 116 92 66 0 70 112 71 134 69 127 67 75 66 35 63 27 68 102
932 0.16080556302048105 -26.172402968934286 -6.6545397758747873 80 53 34 0 67 76 64 17 66 36
933 18.305860753091316 0.98465290811807182 18.403986416596862 197 184 167 0 63 28 66 37
934 11.316861911715083 -2.7332226398189974 6.7380596324390423 45 42 38 0 66 38 64 18 79 145 75 159 76 141 68 103
935 2.7090731109262443 -3.1955459718568813 6.0345563853949784 50 37 29 0 64 19 66 39
936 -2.6839024774801401 -2.5445264619202064 -1.2176975739403053 41 37 38 0 66 40 68 104 64 20
937 16.040910226123753 -12.660917399513936 -7.0955553753308696 179 115 49 0 64 21 66 41
938 5.8801777786105847 -17.821454503752392 -3.0267259790449836 92 67 40 0 81 161 66 42 64 22 67 77 68 105 69 128 70 113 71 135 74 144 76 142 72 130 73 138 78 166 79 146 82 134 85 163 80 145 86 153 87 156 84 143 91 110 75 160 92 112 90 121 83 136 89 163
941 -9.4459539182006687 -24.475085596090945 3.2398309261672624 110 43 2 0 66 43 67 78 65 17
942 9.6881489222207158 -22.890021547352028 0.47415954231386165 92 48 13 0 66 44 65 18 70 114 67 79
943 -1.5633611134862184 -35.429397612518692 4.4891014021785987 158 106 55 0 59 6 60 10 58 7 56 32 57 9 66 45 65 19 64 23 67 80 63 29 62 13
946 13.368325988765845 -12.914315163941064 -4.5082835180765146 188 89 2 0 66 46 63 30 65 20
947 8.1264748382071144 -2.2319458564234411 0.35464322722217889 27 28 33 0 66 47 65 21 75 161 73 139 72 131 69 129
948 15.522240755563821 -11.902714712255117 -4.6751889472272259 147 82 27 0 81 162 77 167 66 48 65 22 67 81 68 106 69 130 70 115 71 136 74 145 72 132 73 140 76 143 78 167 79 147 82 135 86 154 88 167 91 111 75 162 90 122 89 164 83 137 84 144 80 146 87 157 85 164
949 1.8231152524065437 -18.029273159904978 -4.4929301956607794 135 111 74 0 55 33 52 14 65 23 63 31 73 141 66 49
950 -14.07335639287197 -3.5184066536393908 15.684861054360516 112 98 82 0 63 32 65 24
951 12.283803762652362 -23.172379926332987 -2.584574858123502 134 65 15 0 63 33 65 25
952 4.7416841301569246 -3.4750801192893648 0.25577997670926078 41 34 30 0 63 34 65 26
953 -4.604806752973909 -4.3924235164365824 0.56049934127978385 92 57 32 0 63 35 65 27
954 3.3272900834977701 -1.5194948544387383 -1.0727022182143668 32 33 36 0 53 13 65 28 64 24 57 10 62 14
955 8.6848254951739641 -25.195939870493419 -2.1113367796049238 52 48 44 0 57 11 65 29 61 11 64 25
958 11.657361535163965 -1.3410283862679788 4.1752658003917995 50 47 46 0 65 30 66 50 64 26
961 1.4214731664249163 -26.642043733347414 -3.3246401238440169 112 53 3 0 65 31 66 51 64 27
962 9.3767640764543021 -22.247809067781969 -0.86714127972578503 115 79 42 0 64 28 65 32
964 2.4941632683519215 -18.714388751357372 -5.7374607145536194 105 87 59 0 65 33 64 29 59 7 63 36
965 -0.2136333738909022 -25.292867730349091 -5.7494513014638668 56 49 47 0 65 34 58 8 64 30
967 -2.2813502395479106 -2.0185517100229244 1.2835224685626843 36 34 36 0 65 35 64 31 70 116 66 52
968 10.98090105921661 -1.3821765473454197 1.4903867206430637 47 46 46 0 65 36 64 32 75 163 73 142 72 133 74 146 71 137 70 117 69 131 68 107 67 82 66 53
969 10.694224668090914 -2.1647926361056054 4.2172321344854877 42 40 41 0 65 37 62 15 64 33
970 8.1704010485653544 -25.776636259786184 -2.1780017204476114 60 50 43 0 8 14 65 38 64 34 67 83 63 37 66 54 92 113 79 148 90 123 58 9 59 8 70 118 56 33
971 9.8836618200821746 -30.020067308820185 1.304935025152747 133 61 2 0 64 35 65 39
972 -7.2039217804065281 -22.119064392090614 1.0571854745127689 121 51 6 0 65 40 64 36 66 55 67 84 68 108 59 9 69 132
973 7.9430094843957528 -32.811842135822005 4.2227645569193086 148 80 24 0 81 163 77 168 65 41 64 37 66 56 83 138 89 165 92 114 90 124 75 164 84 145 91 112 87 158 88 168 85 165 80 147 82 136 78 168 73 143 72 134 76 144 74 147 71 138 70 119 69 133 68 109 63 38 86 155 67 85
974 -11.340153207702453 -3.2160414362084118 7.6905604668801537 62 56 50 0 77 169 65 42 64 38 82 137 66 57
976 11.9816827428871 -1.2841090140218352 6.5218579637742815 41 40 41 0 65 43 66 58 64 39
977 12.882214426057908 -10.708467459453351 -4.3744161601148903 95 47 5 0 64 40 65 44
978 5.5231173761243921 -2.2814423964261881 -2.948830362078859 41 41 44 0 65 45 66 59 64 41
982 -4.2203332573514816 -31.882727906542669 -0.71367406907215636 144 76 21 0 65 46 64 42 67 86 66 60
985 14.461892659904221 -1.1195868393155088 35.007610673381457 196 181 159 0 65 47 64 43 67 87 69 134 70 120 71 139 72 135 75 165 73 144
986 0.23974414115250892 -2.2548942657884048 9.1024723825727865 61 53 43 0 65 48 66 61 64 44
987 11.30212905312318 -11.57194443001474 -2.3309886573289202 86 38 4 0 64 45 62 16 65 49 63 39 61 12 66 62
988 -0.75015633653578651 -4.8612405771757228 10.176131584796009 110 89 62 0 62 17 64 46
989 9.1716697553363495 -1.8516897640615784 0.17122719806537204 36 37 39 0 64 47 62 18 65 50 66 63 60 11 59 10
990 3.4587208645994814 -17.595888118909969 -4.9348217855660383 72 51 30 0 83 139 64 48 62 19 66 64 80 148 60 12 74 148
991 11.845086953803076 -11.46776198615148 -3.720066213520913 89 40 2 0 62 20 64 49
992 5.6068776284200048 -18.194490927164004 -1.1083740282778118 95 73 45 0 63 40 67 88 64 50
993 1.7614933916659068 -21.44979724002717 -4.2183738800615762 141 116 80 0 81 164 63 41 65 51 64 51
994 6.2043379968108381 -2.0651334374588486 5.5828120610448613 35 32 34 0 75 166 63 42 64 52 67 89 65 52
995 -2.2241388816934662 -27.581546374130259 -1.6670736128788102 104 58 21 0 63 43 65 53 64 53
997 -6.9391963901510225 -2.0073340134380269 0.63037924530445388 51 49 45 0 63 44 62 21 64 54
998 -5.736809698102717 -2.7628986218377158 -8.5566492374954013 55 53 52 0 63 45 65 54 64 55
999 11.672848885541619 -14.293722050181461 -8.5910883212519646 193 99 6 0 63 46 62 22 64 56
1000 -1.948519067107205 -4.1940459999819337 4.7107940088531137 80 51 29 0 77 170 63 47 64 57 65 55 66 65 67 90 68 110 69 135 70 121 71 140 74 149 76 145 72 136 73 145 75 167 78 169
1001 10.017885372370746 -8.8039847700460996 5.2495615174489805 116 75 46 0 63 48 64 58 67 91 68 111 69 136 70 122 71 141 76 146 59 11 80 149
1003 4.852509154313446 -2.2007922060712626 -2.2374794244422671 36 37 40 0 81 165 63 49 64 59 90 125 83 140 89 166 75 168 84 146 88 169 85 166 82 138 79 149 73 146 72 137 74 150 78 170 76 147
